ply
format ascii 1.0
comment VCGLIB generated
element vertex 655
property float x
property float y
property float z
property float nx
property float ny
property float nz
property uchar red
property uchar green
property uchar blue
property uchar alpha
element face 0
property list uchar int vertex_indices
end_header
-0.0480507 0.210315 0.0695595 -0.5086 -0.455586 0.730594 195 252 59 255 
-0.056402 0.164524 0.0631123 -0.597566 -0.453614 0.661172 219 165 0 255 
-0.0539581 0.231701 0.065026 -0.572964 -0.452692 0.683214 215 225 17 255 
-0.0440143 -0.184131 0.0724661 -0.46077 -0.454211 0.762485 251 154 21 255 
-0.0589242 0.258926 0.0612196 -0.621195 -0.450408 0.641287 253 239 20 255 
-0.0537084 0.120494 0.0651622 -0.569408 -0.45252 0.686295 123 233 0 255 
-0.0489935 0.252628 0.0688555 -0.519173 -0.452825 0.724851 222 255 132 255 
-0.0549343 0.12261 0.0642202 -0.580048 -0.453006 0.677001 145 213 0 255 
-0.0445693 0.12993 0.0721971 -0.467767 -0.451354 0.759916 255 163 21 255 
-0.0525805 0.151108 0.0660453 -0.555535 -0.455439 0.69567 227 89 0 255 
-0.0468999 -0.0943779 0.0702916 -0.493809 -0.454172 0.741539 255 249 46 255 
-0.0547247 0.12035 0.0643805 -0.580048 -0.453006 0.677001 159 234 0 255 
-0.0427805 0.0792433 0.0735476 -0.449556 -0.452825 0.769967 235 147 0 255 
-0.0459509 0.0657456 0.0711021 -0.482669 -0.453017 0.749537 222 177 0 255 
-0.0462005 0.234395 0.0709949 -0.486386 -0.453411 0.746891 253 248 43 255 
-0.0436212 -0.143617 0.0727888 -0.457034 -0.453758 0.764999 84 251 24 255 
-0.0496604 0.232116 0.0683322 -0.526503 -0.453424 0.719167 208 249 83 255 
-0.04523 0.118171 0.071683 -0.475224 -0.452203 0.754768 235 250 9 255 
-0.0473915 0.154864 0.0700388 -0.501214 -0.454897 0.736107 247 235 35 255 
-0.0464727 0.0845334 0.0707103 -0.4901 -0.453796 0.744225 255 249 46 255 
-0.0393745 0.187058 0.0751535 -0.416329 -0.451968 0.78892 225 170 0 255 
-0.0253718 -0.168218 0.0807412 -0.265376 -0.452521 0.851352 253 158 0 255 
-0.0323736 -0.128734 0.0778562 -0.33993 -0.453767 0.823737 255 211 90 255 
-0.0283889 -0.211565 0.0794581 -0.296904 -0.452351 0.840968 173 246 32 255 
-0.0342213 0.0652676 0.0772158 -0.361698 -0.454115 0.81422 204 255 136 255 
-0.0373471 -0.0461057 0.0758428 -0.394344 -0.452288 0.799955 196 255 25 255 
-0.0385044 -0.189903 0.075267 -0.405555 -0.454028 0.793337 255 203 24 255 
-0.0425438 -0.226319 0.0735635 -0.445815 -0.452347 0.772419 226 127 8 255 
-0.0344775 -0.209782 0.0769281 -0.361698 -0.454115 0.81422 241 253 143 255 
-0.0321378 -0.0285049 0.0780201 -0.33993 -0.453767 0.823737 181 255 103 255 
-0.0318819 -0.0987004 0.0780804 -0.33625 -0.45307 0.825629 227 243 58 255 
-0.0414391 0.110617 0.0742448 -0.434587 -0.450863 0.779652 100 232 0 255 
-0.0399491 0.0327707 0.0748129 -0.420072 -0.45251 0.786622 226 214 8 255 
-0.0400759 -0.0395257 0.0747127 -0.420072 -0.45251 0.786622 231 183 0 255 
-0.0317368 -0.184958 0.0780839 -0.332576 -0.452367 0.827501 172 255 73 255 
-0.0403839 -0.225145 0.0744623 -0.423816 -0.453045 0.784303 247 227 19 255 
-0.0402262 0.0030237 0.0746781 -0.423816 -0.453045 0.784303 237 167 0 255 
-0.0408977 -0.144769 0.0743015 -0.42756 -0.453571 0.781963 255 178 0 255 
-0.0402099 0.0657266 0.0747261 -0.423816 -0.453045 0.784303 233 91 0 255 
-0.0292882 -0.138361 0.0791325 -0.307769 -0.454624 0.83582 255 226 28 255 
-0.0403506 -0.147452 0.0745274 -0.423816 -0.453045 0.784303 255 173 4 255 
-0.0330798 -0.2221 0.077501 -0.347305 -0.455143 0.819893 200 255 105 255 
-0.0305962 -0.110045 0.0786074 -0.321973 -0.453903 0.830846 220 255 31 255 
-0.0403278 -0.21576 0.0744919 -0.423816 -0.453045 0.784303 252 146 8 255 
-0.0310867 -0.219737 0.0783312 -0.325632 -0.454626 0.829023 230 232 37 255 
-0.0412349 0.22828 0.0744072 -0.434587 -0.450863 0.779652 143 233 0 255 
-0.0349647 -0.0979243 0.0767992 -0.369123 -0.455412 0.810153 178 244 86 255 
-0.0421607 0.101331 0.0739386 -0.442073 -0.45186 0.774851 248 195 19 255 
-0.0398998 -0.129321 0.0747267 -0.420072 -0.45251 0.786622 140 251 0 255 
-0.0414895 -0.16402 0.0740429 -0.434587 -0.450863 0.779652 245 151 1 255 
-0.0371218 0.0658827 0.0760103 -0.391048 -0.455418 0.799798 244 255 59 255 
-0.0362251 0.0383703 0.0763649 -0.383587 -0.454206 0.804088 130 255 92 255 
-0.0259468 -0.161932 0.0805062 -0.272483 -0.454139 0.84824 255 253 0 255 
-0.029669 -0.118195 0.0789876 -0.311405 -0.455371 0.834065 255 229 28 255 
-0.0317922 -0.117063 0.0781055 -0.33625 -0.45307 0.825629 185 249 65 255 
-0.0410692 -0.0608633 0.0742857 -0.431304 -0.45409 0.779602 255 137 11 255 
-0.0382465 0.0725718 0.075547 -0.401816 -0.453455 0.795564 233 251 25 255 
-0.0358705 -0.182564 0.0763668 -0.376138 -0.452966 0.808296 194 251 52 255 
-0.0391547 0.0634931 0.0751635 -0.413037 -0.455151 0.78882 216 106 0 255 
-0.0417286 -0.112318 0.0739776 -0.43833 -0.451366 0.777262 230 141 0 255 
-0.0389632 -0.0243192 0.0751852 -0.409296 -0.454593 0.791089 245 231 0 255 
-0.0282441 -0.107987 0.0795867 -0.296904 -0.452351 0.840968 243 175 14 255 
-0.0398223 -0.139021 0.0747525 -0.416329 -0.451968 0.78892 233 167 0 255 
-0.0311038 -0.211771 0.0783295 -0.329296 -0.455343 0.82718 174 255 56 255 
-0.0391809 -0.0708863 0.0750641 -0.413037 -0.455151 0.78882 138 232 0 255 
-0.0243327 -0.176841 0.0811675 -0.255094 -0.453671 0.853879 253 186 11 255 
0.0539149 -0.0959651 0.0651359 0.569408 -0.45252 0.686295 223 201 2 255 
0.045448 0.0625706 0.0718013 0.475224 -0.452203 0.754768 255 107 19 255 
0.0513006 -0.068199 0.0671691 0.539808 -0.453439 0.709225 255 69 6 255 
0.044766 -0.182353 0.0720347 0.467767 -0.451354 0.759916 255 254 6 255 
0.0475057 -0.173811 0.0699484 0.499995 -0.453791 0.737617 248 85 0 255 
0.0492308 0.0430293 0.068884 0.519173 -0.452825 0.724851 240 248 13 255 
0.0466116 -0.0843923 0.0707377 0.488898 -0.452683 0.745692 255 73 0 255 
0.0457172 0.0775745 0.0716132 0.478948 -0.452614 0.752163 226 180 9 255 
0.0476929 0.0110554 0.070023 0.499995 -0.453791 0.737617 255 147 9 255 
0.0488312 -0.210569 0.0688908 0.514724 -0.455141 0.726571 255 33 14 255 
0.051844 -0.144545 0.0666633 0.547044 -0.45393 0.703342 217 251 4 255 
0.0459406 -0.136626 0.0711897 0.482669 -0.453017 0.749537 238 95 0 255 
0.0492104 -0.203117 0.0686093 0.519173 -0.452825 0.724851 233 57 0 255 
0.0496221 -0.0851536 0.0684335 0.522841 -0.453129 0.722019 195 86 0 255 
0.0436498 0.20133 0.0733409 0.45589 -0.452622 0.766353 255 151 49 255 
0.0467761 0.0947282 0.0708231 0.4901 -0.453796 0.744225 255 73 0 255 
0.0468976 0.0568491 0.0706854 0.492601 -0.453061 0.743021 245 128 0 255 
0.0457912 -0.0640963 0.0713895 0.478948 -0.452614 0.752163 247 187 11 255 
0.0459487 -0.0746207 0.0712566 0.482669 -0.453017 0.749537 240 156 5 255 
0.0491183 -0.0433469 0.0688681 0.515498 -0.452511 0.727664 222 29 12 255 
0.052556 -0.120313 0.0661471 0.554247 -0.454383 0.697386 230 94 0 255 
0.0453183 0.0409457 0.0718753 0.475224 -0.452203 0.754768 232 75 0 255 
0.0465646 -0.137255 0.0707115 0.488898 -0.452683 0.745692 255 180 21 255 
0.048479 0.0240416 0.0694367 0.50737 -0.454485 0.732133 233 206 27 255 
0.0541897 -0.216921 0.0647831 0.571658 -0.45166 0.68499 233 177 66 255 
0.0429982 0.00981414 0.0736139 0.448426 -0.451687 0.771293 248 152 14 255 
0.0459358 -0.11297 0.0712212 0.482669 -0.453017 0.749537 228 118 0 255 
0.0484284 0.00222935 0.0694496 0.50737 -0.454485 0.732133 232 14 0 255 
0.0444145 0.160793 0.0727081 0.463348 -0.453524 0.761331 254 206 12 255 
0.0467368 -0.00827796 0.0707318 0.4901 -0.453796 0.744225 231 104 0 255 
0.0439055 0.197551 0.0731407 0.45589 -0.452622 0.766353 255 183 68 255 
0.0440641 0.164346 0.0729803 0.45962 -0.453077 0.763852 249 179 5 255 
0.0438795 -0.17924 0.0727166 0.45962 -0.453077 0.763852 255 136 9 255 
0.0474433 0.0367833 0.0702443 0.497514 -0.454539 0.738833 184 232 0 255 
0.0455489 -0.0824221 0.0715534 0.477764 -0.451495 0.753587 255 173 10 255 
0.0575989 -0.171697 0.0622277 0.604492 -0.453787 0.654727 255 235 78 255 
0.0555462 -0.110373 0.0638707 0.583574 -0.453147 0.673869 201 246 68 255 
0.0473143 -0.124576 0.0701528 0.4963 -0.453431 0.740329 255 162 18 255 
0.0543433 -0.0869636 0.0648186 0.572964 -0.452692 0.683214 255 173 34 255 
0.0523578 -0.178048 0.0662306 0.55065 -0.454161 0.700373 222 89 0 255 
0.047266 0.129037 0.0704885 0.4963 -0.453431 0.740329 213 22 0 255 
0.0480969 0.0321317 0.0697386 0.503685 -0.454142 0.734885 245 228 27 255 
0.0454402 -0.0448577 0.0716808 0.475224 -0.452203 0.754768 230 229 0 255 
0.053244 -0.105148 0.0656384 0.561415 -0.454796 0.691357 255 228 13 255 
0.0515401 -0.143851 0.0668966 0.54343 -0.453689 0.706293 252 237 10 255 
0.0595352 -0.22034 0.0606886 0.624579 -0.450433 0.637974 255 209 46 255 
0.0497823 0.044067 0.0684631 0.522841 -0.453129 0.722019 233 239 7 255 
-0.051625 -0.0738518 0.066667 -0.544707 -0.454756 0.704621 209 255 30 255 
-0.0520279 -0.0109957 0.0663888 -0.551934 -0.455221 0.698672 255 228 42 255 
-0.0552958 -0.203375 0.0637782 -0.583574 -0.453147 0.673869 247 151 12 255 
-0.0523491 -0.152317 0.0660706 -0.551934 -0.455221 0.698672 255 211 22 255 
-0.0581048 -0.127536 0.0616555 -0.611368 -0.45392 0.648218 198 229 4 255 
-0.0592877 -0.0955751 0.0607616 -0.624579 -0.450433 0.637974 216 255 0 255 
-0.0519247 -0.0971663 0.0664247 -0.548325 -0.454993 0.701656 218 255 14 255 
-0.0543894 -0.193492 0.0644803 -0.572964 -0.452692 0.683214 237 128 11 255 
-0.0560133 -0.22685 0.0632145 -0.590593 -0.453401 0.667554 221 49 27 255 
-0.050865 -0.100566 0.0672383 -0.537448 -0.454252 0.710496 222 252 56 255 
-0.0499414 -0.186641 0.0679054 -0.526503 -0.453424 0.719167 249 255 94 255 
-0.051347 -0.0177761 0.0669092 -0.544707 -0.454756 0.704621 252 251 49 255 
-0.0581559 0.0371049 0.0616992 -0.614787 -0.453971 0.64494 195 251 0 255 
-0.045089 -0.207267 0.0716277 -0.475224 -0.452203 0.754768 250 191 0 255 
-0.0533108 -0.0344473 0.0653901 -0.562709 -0.455845 0.689611 226 80 0 255 
-0.0513153 -0.184706 0.0668495 -0.541082 -0.454509 0.707568 192 255 76 255 
-0.0491823 -0.0628141 0.0685517 -0.519173 -0.452825 0.724851 227 255 91 255 
-0.0457957 -0.20601 0.0710848 -0.482669 -0.453017 0.749537 250 191 0 255 
-0.0589458 -0.196959 0.0609736 -0.621195 -0.450408 0.641287 209 232 2 255 
-0.0547176 -0.17077 0.0642395 -0.576511 -0.452854 0.680116 175 217 9 255 
-0.0546462 -0.0133272 0.0643735 -0.576511 -0.452854 0.680116 235 126 9 255 
-0.0557445 0.0251184 0.063548 -0.590593 -0.453401 0.667554 227 40 0 255 
-0.0579218 -0.0766597 0.0618219 -0.611368 -0.45392 0.648218 255 216 0 255 
-0.0566246 -0.0173686 0.0628497 -0.597566 -0.453614 0.661172 219 165 0 255 
-0.0511867 -0.072799 0.0670046 -0.541082 -0.454509 0.707568 232 253 52 255 
-0.0581927 0.192023 0.0617487 -0.614787 -0.453971 0.64494 221 150 0 255 
-0.0538592 0.0543618 0.0650129 -0.569408 -0.45252 0.686295 230 224 24 255 
-0.0548118 -0.161991 0.0641713 -0.580048 -0.453006 0.677001 255 172 30 255 
-0.0509297 -0.0283403 0.0672249 -0.537448 -0.454252 0.710496 246 235 29 255 
-0.0530931 0.0248379 0.0655873 -0.562709 -0.455845 0.689611 213 117 0 255 
-0.0579814 -0.11834 0.0617552 -0.611368 -0.45392 0.648218 255 199 26 255 
-0.0539864 0.0057571 0.0648906 -0.569408 -0.45252 0.686295 174 216 10 255 
-0.0534381 0.0299776 0.0653246 -0.566283 -0.456033 0.686555 205 94 0 255 
-0.0592982 -0.163836 0.0607193 -0.624579 -0.450433 0.637974 230 159 7 255 
-0.0519077 -0.2092 0.0663816 -0.548325 -0.454993 0.701656 255 213 40 255 
-0.0592293 -0.194779 0.0607566 -0.621195 -0.450408 0.641287 207 231 0 255 
-0.0530711 0.0516517 0.0656178 -0.562709 -0.455845 0.689611 167 238 0 255 
-0.0512378 -0.11643 0.0669436 -0.541082 -0.454509 0.707568 211 251 17 255 
-0.0501773 -0.0980225 0.0677685 -0.530159 -0.453709 0.716296 220 241 78 255 
-0.051564 -0.0564074 0.0667228 -0.544707 -0.454756 0.704621 151 255 47 255 
-0.0584586 -0.0405034 0.0614271 -0.614387 -0.450327 0.647869 210 117 0 255 
-0.0516921 -0.123944 0.0665903 -0.544707 -0.454756 0.704621 203 252 3 255 
-0.0563308 0.015025 0.0630919 -0.594085 -0.453513 0.664371 225 165 9 255 
-0.0472816 -0.222132 0.0699336 -0.497514 -0.454539 0.738833 198 255 54 255 
-0.0553935 -0.0812545 0.0637644 -0.583574 -0.453147 0.673869 35 215 54 255 
-0.0586756 -0.00253376 0.0612793 -0.617798 -0.450373 0.644586 230 160 2 255 
0.00011988 -0.189172 -0.0852569 -0.00131302 0.447738 0.894164 2 2 2 255 
-0.0105854 -0.201885 -0.0838736 0.111597 0.450625 0.885711 2 2 2 255 
-0.00272944 -0.106929 -0.0848117 0.0308364 0.451821 0.891576 2 2 2 255 
-0.0121286 -0.0895629 -0.0835715 0.130072 0.453107 0.881916 2 2 2 255 
-0.00881017 -0.0867874 -0.0840013 0.0936314 0.451387 0.887402 2 2 2 255 
-0.0111759 -0.0211474 -0.0836341 0.120859 0.453578 0.882984 2 2 2 255 
-0.000318093 -0.195534 -0.0852055 0.00394362 0.450887 0.892572 2 2 2 255 
-0.0135884 -0.138306 -0.0834252 0.145555 0.451077 0.880536 2 2 2 255 
-0.010972 -0.0366927 -0.0836747 0.11776 0.452594 0.883907 2 2 2 255 
-0.00424594 -0.193228 -0.0846918 0.0446493 0.450552 0.891633 2 2 2 255 
-0.0147358 -0.212746 -0.0833426 0.154988 0.450479 0.879231 2 2 2 255 
-0.00626725 -0.202392 -0.0844365 0.0673543 0.452236 0.889351 2 2 2 255 
-0.0179679 -0.143417 -0.0828591 0.190418 0.450214 0.872381 2 2 2 255 
-0.0133628 -0.0437981 -0.0833695 0.142546 0.453556 0.879754 2 2 2 255 
-0.00635516 0.108418 -0.0841458 0.0702619 0.453258 0.888606 101 101 101 255 
-0.00723188 -0.0496934 -0.0841736 0.0789644 0.453006 0.888003 2 2 2 255 
-0.0127782 -0.129021 -0.0835223 0.136205 0.451627 0.881749 2 2 2 255 
-0.00272878 -2.65689e-05 -0.0847156 0.0308364 0.451821 0.891576 2 2 2 255 
-0.00439585 -0.163452 -0.0846455 0.0474639 0.451585 0.890965 2 2 2 255 
-0.00106762 -0.118263 -0.0850384 0.0119001 0.45088 0.892505 2 2 2 255 
-0.00338323 0.0600839 -0.0845765 0.0391041 0.451719 0.891303 30 30 30 255 
-0.00526673 0.00509368 -0.0843804 0.0587768 0.452445 0.889853 19 19 19 255 
-0.0181514 -0.207826 -0.082893 0.193759 0.451119 0.871177 2 2 2 255 
-0.0032173 0.16559 -0.0845031 0.0363236 0.450681 0.891946 101 101 101 255 
-0.00215612 0.0347737 -0.0847591 0.0253561 0.449737 0.892801 17 17 17 255 
-0.00309151 -0.138227 -0.0847926 0.0335555 0.449644 0.892577 2 2 2 255 
-0.0108713 -0.123575 -0.0837659 0.114672 0.45161 0.884816 2 2 2 255 
-0.000243093 0.147937 -0.0849065 0.00393902 0.447735 0.894158 101 101 101 255 
-0.000625081 0.24038 -0.0847736 0.00923407 0.449831 0.893066 101 101 101 255 
-0.0169997 -0.181783 -0.0830198 0.180686 0.450982 0.874053 2 2 2 255 
-0.00260228 -0.0857299 -0.0848091 0.0280901 0.450779 0.892194 2 2 2 255 
-0.00366897 -0.0809947 -0.084666 0.0391041 0.451719 0.891303 2 2 2 255 
-0.0178226 -0.189626 -0.0829196 0.187088 0.449306 0.873569 2 2 2 255 
-0.00744901 -0.141204 -0.0842277 0.0789644 0.453006 0.888003 2 2 2 255 
-0.000736524 -0.104926 -0.0850696 0.00923407 0.449831 0.893066 2 2 2 255 
-0.00035709 -0.109245 -0.0851229 0.00393902 0.447735 0.894158 2 2 2 255 
-0.00845685 -0.0871902 -0.0840478 0.090745 0.453725 0.886509 2 2 2 255 
-0.00697871 -0.00143486 -0.0841632 0.0760229 0.451991 0.888777 2 2 2 255 
-0.00628172 -0.11789 -0.0843588 0.0673543 0.452236 0.889351 2 2 2 255 
-0.000143499 -0.120944 -0.0851613 0.00394362 0.450887 0.892572 2 2 2 255 
-0.00272752 -0.17373 -0.084872 0.0308364 0.451821 0.891576 2 2 2 255 
-0.00925696 0.0123881 -0.0838539 0.0996614 0.453389 0.885723 19 19 19 255 
-0.0129838 -0.0699676 -0.0834423 0.13937 0.452592 0.880759 2 2 2 255 
-0.00129021 0.130662 -0.0847856 0.0172489 0.449799 0.892963 101 101 101 255 
-0.00650612 -0.194595 -0.0843985 0.0702619 0.453258 0.888606 2 2 2 255 
-0.00738623 0.0118551 -0.0840982 0.0789644 0.453006 0.888003 19 19 19 255 
0.0135542 0.0202313 -0.0833335 -0.139723 0.45374 0.880112 2 2 2 255 
0.00192883 -0.225951 -0.0850712 -0.0199728 0.448721 0.893448 101 101 101 255 
0.0171648 -0.0535609 -0.0829114 -0.177842 0.451219 0.874513 101 101 101 255 
0.0174504 0.0894329 -0.0827616 -0.180686 0.450982 0.874053 2 2 2 255 
0.0179945 -0.162511 -0.0828865 -0.187321 0.452815 0.871705 101 101 101 255 
0.0151309 -0.152556 -0.0832593 -0.158216 0.451424 0.878171 101 101 101 255 
0.0164386 0.0822501 -0.0829016 -0.168191 0.451923 0.876058 2 2 2 255 
0.021967 -0.0880945 -0.0823005 -0.227504 0.450488 0.863309 101 101 101 255 
0.00759925 -0.205673 -0.0843018 -0.0789644 0.453006 0.888003 101 101 101 255 
0.0110562 -0.0885204 -0.0837507 -0.11496 0.452744 0.884199 101 101 101 255 
0.0100268 -0.0282388 -0.0838403 -0.102826 0.452153 0.885994 101 101 101 255 
0.0156458 -0.217395 -0.0832417 -0.161868 0.453523 0.876422 101 101 101 255 
0.013547 -0.169533 -0.083483 -0.139723 0.45374 0.880112 101 101 101 255 
0.0176095 0.134956 -0.0827047 -0.181151 0.452142 0.873356 2 2 2 255 
0.0199221 -0.0918429 -0.0825751 -0.206975 0.451175 0.868103 101 101 101 255 
0.0140422 -0.215999 -0.0834538 -0.145925 0.452224 0.879886 101 101 101 255 
0.00396922 -0.222407 -0.0847973 -0.041897 0.452758 0.890649 101 101 101 255 
0.0164891 -0.123702 -0.0830563 -0.171032 0.451699 0.875623 101 101 101 255 
0.0168298 -0.149727 -0.0830313 -0.174313 0.452628 0.874496 101 101 101 255 
0.0128811 -0.136999 -0.0835461 -0.133389 0.451802 0.88209 101 101 101 255 
0.0165772 -0.178227 -0.0830873 -0.17147 0.452858 0.874939 101 101 101 255 
0.0198184 0.0962522 -0.0824415 -0.204122 0.451452 0.868634 4 4 4 255 
0.0203609 0.188846 -0.082297 -0.210366 0.452062 0.866825 2 2 2 255 
0.0118387 0.0220286 -0.0835601 -0.120859 0.453578 0.882984 2 2 2 255 
0.0144426 0.071866 -0.0831751 -0.14913 0.453182 0.878855 2 2 2 255 
0.0103896 -0.121189 -0.0838648 -0.108667 0.453013 0.884857 101 101 101 255 
0.0198217 -0.0537272 -0.0825587 -0.204122 0.451452 0.868634 101 101 101 255 
0.012633 -0.0602003 -0.0835189 -0.130072 0.453107 0.881916 101 101 101 255 
0.017786 -0.200058 -0.0829437 -0.184472 0.453063 0.872183 101 101 101 255 
0.0146606 0.0320163 -0.0831773 -0.15196 0.452985 0.878472 2 2 2 255 
0.005099 -0.147908 -0.0845889 -0.053196 0.451484 0.890692 101 101 101 255 
0.0158247 -0.00556294 -0.0830521 -0.164706 0.453307 0.876005 2 2 2 255 
0.0153905 -0.0527561 -0.0831467 -0.15862 0.452577 0.877504 101 101 101 255 
0.0215392 -0.0642615 -0.0823387 -0.223756 0.452018 0.863489 101 101 101 255 
0.0150658 -0.0086455 -0.0831553 -0.155384 0.451629 0.878571 100 100 100 255 
0.0223058 -0.00678602 -0.0821916 -0.230358 0.450177 0.862714 2 2 2 255 
0.0129245 0.0470544 -0.0833962 -0.133216 0.454081 0.880945 2 2 2 255 
0.00658473 -0.154951 -0.0843969 -0.0673543 0.452236 0.889351 101 101 101 255 
0.00588022 -0.22857 -0.0845481 -0.0616504 0.453473 0.889135 101 101 101 255 
0.0219045 -0.0332151 -0.0822658 -0.226913 0.449318 0.864074 101 101 101 255 
0.0210407 0.012246 -0.082345 -0.21691 0.450274 0.866143 2 2 2 255 
0.0213791 -0.114738 -0.0823993 -0.220328 0.451148 0.864825 101 101 101 255 
0.015969 -0.00958977 -0.0830359 -0.164706 0.453307 0.876005 2 2 2 255 
0.0221596 -0.0103846 -0.082214 -0.227504 0.450488 0.863309 2 2 2 255 
0.0209356 0.109509 -0.0822827 -0.21691 0.450274 0.866143 4 4 4 255 
0.0180063 -0.193598 -0.0829093 -0.187321 0.452815 0.871705 101 101 101 255 
0.024654 -0.183604 -0.0813402 -0.254781 0.450062 0.85588 101 101 101 255 
0.0354895 -0.0646693 -0.0767568 -0.369123 0.455412 0.810153 101 101 101 255 
0.0364507 -0.220216 -0.0764596 -0.379861 0.453589 0.806203 101 101 101 255 
0.0266017 -0.130919 -0.0804957 -0.275714 0.451308 0.848706 101 101 101 255 
0.0416421 0.181805 -0.0740365 -0.430211 0.452939 0.780874 2 2 2 255 
0.0425243 0.0216757 -0.0737752 -0.440957 0.45072 0.77615 2 2 2 255 
0.0334053 -0.0176009 -0.0775923 -0.347305 0.455143 0.819893 14 14 14 255 
0.0422893 -0.0633695 -0.073929 -0.43833 0.451366 0.777262 101 101 101 255 
0.040057 -0.205056 -0.0749504 -0.416329 0.451968 0.78892 101 101 101 255 
0.0307618 -0.0718717 -0.0787271 -0.321134 0.452721 0.831815 101 101 101 255 
0.037045 0.0340731 -0.0760452 -0.38632 0.453645 0.803096 2 2 2 255 
0.0321162 -0.164988 -0.0782254 -0.33625 0.45307 0.825629 101 101 101 255 
0.0340686 -0.12012 -0.0773841 -0.35429 0.452792 0.818204 101 101 101 255 
0.0385694 -0.172824 -0.0755475 -0.401816 0.453455 0.795564 101 101 101 255 
0.0329824 -0.226642 -0.0779059 -0.343615 0.454458 0.821825 101 101 101 255 
0.0354108 -0.0862136 -0.0768038 -0.368169 0.454235 0.811247 101 101 101 255 
0.0322001 -0.0484702 -0.0781139 -0.33625 0.45307 0.825629 101 101 101 255 
0.026542 -0.167041 -0.0805442 -0.275714 0.451308 0.848706 101 101 101 255 
0.0406339 -0.205509 -0.0747108 -0.422738 0.451893 0.785548 101 101 101 255 
0.0389729 -0.00382845 -0.0752686 -0.405555 0.454028 0.793337 2 2 2 255 
0.034749 -0.0273819 -0.0770402 -0.361698 0.454115 0.81422 14 14 14 255 
0.0394549 0.164087 -0.0749575 -0.40825 0.453432 0.792295 4 4 4 255 
0.0410097 -0.0240654 -0.0744351 -0.426475 0.45242 0.783221 14 14 14 255 
0.0298025 -0.19084 -0.0792044 -0.310594 0.454185 0.835014 101 101 101 255 
0.0385033 0.0954241 -0.0753985 -0.400786 0.452293 0.796744 2 2 2 255 
0.0412541 0.027994 -0.0742992 -0.42756 0.453571 0.781963 2 2 2 255 
0.0399915 -0.157747 -0.0749465 -0.416329 0.451968 0.78892 101 101 101 255 
0.0398193 0.187006 -0.074791 -0.412587 0.451419 0.791197 2 2 2 255 
0.0389272 0.0301384 -0.0752652 -0.404517 0.452866 0.79453 2 2 2 255 
0.0337527 0.0437604 -0.0774076 -0.350089 0.454641 0.818987 2 2 2 255 
0.0391847 0.154498 -0.0750762 -0.40825 0.453432 0.792295 4 4 4 255 
0.0381299 -0.122035 -0.0756969 -0.398079 0.452875 0.79777 101 101 101 255 
0.0424548 0.0187893 -0.0738061 -0.440957 0.45072 0.77615 2 2 2 255 
0.0309315 -0.0504137 -0.0786425 -0.321973 0.453903 0.830846 101 101 101 255 
0.0369698 0.0900901 -0.0760394 -0.383587 0.454206 0.804088 3 3 3 255 
0.0390809 -0.102669 -0.0752889 -0.40825 0.453432 0.792295 101 101 101 255 
0.0386222 -0.114802 -0.0754875 -0.401816 0.453455 0.795564 101 101 101 255 
0.0303689 -0.201139 -0.0789756 -0.31832 0.453175 0.83265 101 101 101 255 
0.0311364 -0.0573237 -0.0785619 -0.324784 0.453442 0.830003 101 101 101 255 
0.0370025 -0.193103 -0.0762125 -0.38632 0.453645 0.803096 101 101 101 255 
0.0326908 -0.054279 -0.0779135 -0.33993 0.453767 0.823737 101 101 101 255 
0.0363741 -0.0462568 -0.0763769 -0.379861 0.453589 0.806203 101 101 101 255 
0.0378202 -0.178654 -0.075863 -0.394344 0.452288 0.799955 101 101 101 255 
0.0418508 0.114545 -0.0739942 -0.434587 0.450863 0.779652 2 2 2 255 
0.03426 -0.0784034 -0.0772772 -0.357992 0.453457 0.816222 101 101 101 255 
0.0400264 -0.158129 -0.0749321 -0.416329 0.451968 0.78892 101 101 101 255 
0.0428136 0.0691656 -0.0736237 -0.444692 0.451208 0.773732 2 2 2 255 
-0.0153013 0.202345 -0.0828956 0.164706 0.453307 0.876005 101 101 101 255 
-0.0192371 0.0152465 -0.082551 0.203594 0.450286 0.869363 10 10 10 255 
-0.00987904 0.147965 -0.0836511 0.105612 0.45202 0.885734 101 101 101 255 
-0.0162783 0.132339 -0.0828312 0.174313 0.452628 0.874496 101 101 101 255 
-0.0125184 0.205022 -0.0832559 0.136205 0.451627 0.881749 101 101 101 255 
-0.0184108 -0.025301 -0.0826952 0.197111 0.452022 0.869956 2 2 2 255 
-0.0155957 0.197756 -0.0828614 0.167761 0.450767 0.876735 101 101 101 255 
-0.00604075 0.192356 -0.0841113 0.0673543 0.452236 0.889351 101 101 101 255 
-0.015703 -0.0679915 -0.0830865 0.167761 0.450767 0.876735 2 2 2 255 
-0.0103179 0.21922 -0.0835299 0.111733 0.454005 0.883966 101 101 101 255 
-0.0129093 -0.0108475 -0.083399 0.13937 0.452592 0.880759 2 2 2 255 
-0.0111236 0.0680461 -0.0835607 0.120859 0.453578 0.882984 30 30 30 255 
-0.0198946 -0.030598 -0.0825067 0.210366 0.452062 0.866825 2 2 2 255 
-0.0131553 0.0397284 -0.0833214 0.142546 0.453556 0.879754 14 14 14 255 
-0.0143996 0.0946408 -0.08311 0.15518 0.453937 0.877417 101 101 101 255 
-0.0117528 0.0811505 -0.0834669 0.12694 0.452133 0.882872 100 100 100 255 
-0.00776092 0.181489 -0.0838968 0.0847822 0.451708 0.888128 101 101 101 255 
-0.0210369 0.0379123 -0.0822963 0.223478 0.448456 0.865416 35 35 35 255 
-0.0153987 -0.0307064 -0.0830925 0.164706 0.453307 0.876005 2 2 2 255 
-0.021289 -0.0739496 -0.082364 0.223478 0.448456 0.865416 2 2 2 255 
-0.00716861 0.244884 -0.083917 0.0789644 0.453006 0.888003 101 101 101 255 
-0.0150026 0.253304 -0.0828887 0.161455 0.452366 0.877096 101 101 101 255 
-0.0131266 0.218044 -0.0831648 0.142546 0.453556 0.879754 101 101 101 255 
-0.0133346 0.163888 -0.0831864 0.142546 0.453556 0.879754 101 101 101 255 
-0.0157933 0.251253 -0.0827877 0.171032 0.451699 0.875623 101 101 101 255 
-0.00911556 0.137562 -0.0837599 0.0996614 0.453389 0.885723 101 101 101 255 
-0.01446 0.203406 -0.0830043 0.154988 0.450479 0.879231 101 101 101 255 
-0.0180098 0.0336971 -0.0826944 0.190418 0.450214 0.872381 35 35 35 255 
-0.0153561 0.177851 -0.0829106 0.164706 0.453307 0.876005 101 101 101 255 
-0.0196666 -0.104692 -0.0826029 0.206975 0.451175 0.868103 2 2 2 255 
-0.0146407 0.138918 -0.0830387 0.158216 0.451424 0.878171 101 101 101 255 
-0.00519208 0.166852 -0.0842447 0.0587768 0.452445 0.889853 101 101 101 255 
-0.0126641 0.0668763 -0.083361 0.136205 0.451627 0.881749 30 30 30 255 
-0.0198737 -0.0168706 -0.0824971 0.210366 0.452062 0.866825 2 2 2 255 
-0.0125418 0.0329187 -0.0834075 0.133052 0.450661 0.882724 17 17 17 255 
-0.010164 0.0524066 -0.0836998 0.108667 0.453013 0.884857 14 14 14 255 
-0.0128672 0.118819 -0.0832879 0.13937 0.452592 0.880759 101 101 101 255 
-0.00949576 0.135027 -0.0837126 0.10257 0.451026 0.886597 101 101 101 255 
-0.00336089 0.253494 -0.0844054 0.0391041 0.451719 0.891303 101 101 101 255 
-0.00662253 0.122872 -0.0840979 0.0730939 0.450975 0.889538 101 101 101 255 
-0.00820273 0.245171 -0.0837821 0.090745 0.453725 0.886509 101 101 101 255 
-0.0146808 0.0125988 -0.0831471 0.158216 0.451424 0.878171 19 19 19 255 
-0.00683579 0.123508 -0.0840695 0.0760229 0.451991 0.888777 101 101 101 255 
-0.0176606 0.0730879 -0.0827045 0.187321 0.452815 0.871705 29 29 29 255 
-0.0211059 0.122759 -0.082211 0.223478 0.448456 0.865416 101 101 101 255 
-0.0108398 0.12274 -0.0835486 0.11776 0.452594 0.883907 101 101 101 255 
-0.0131677 0.0817243 -0.083282 0.142546 0.453556 0.879754 100 100 100 255 
0.00236704 0.0608033 -0.0847884 -0.0226885 0.449766 0.892858 2 2 2 255 
0.00141203 -0.188587 -0.0851107 -0.0145959 0.449818 0.893001 101 101 101 255 
0.00180629 0.224257 -0.0847348 -0.0172695 0.447678 0.894028 2 2 2 255 
0.00135588 0.182124 -0.0848278 -0.0119142 0.44877 0.893568 2 2 2 255 
0.00633559 0.127963 -0.0842084 -0.0644591 0.451214 0.890085 4 4 4 255 
0.00731484 0.240032 -0.0839905 -0.0732736 0.452084 0.888961 2 2 2 255 
0.00539793 -0.0795494 -0.0844955 -0.0559157 0.451417 0.89056 101 101 101 255 
0.00282295 0.178419 -0.0846357 -0.0281239 0.448643 0.893268 2 2 2 255 
0.011559 0.073529 -0.083557 -0.118056 0.453732 0.883284 2 2 2 255 
0.00100922 -0.0476751 -0.0850538 -0.00924501 0.447723 0.894125 101 101 101 255 
0.0112229 0.132173 -0.0835557 -0.11496 0.452744 0.884199 2 2 2 255 
0.0105745 0.12794 -0.0836452 -0.108667 0.453013 0.884857 4 4 4 255 
0.0195766 0.220448 -0.0823764 -0.200743 0.450556 0.869886 2 2 2 255 
0.00966745 -0.00317674 -0.0838684 -0.0996614 0.453389 0.885723 100 100 100 255 
0.0101583 0.15241 -0.0836813 -0.102826 0.452153 0.885994 2 2 2 255 
0.00362854 -0.132632 -0.0847722 -0.0364109 0.451765 0.891393 101 101 101 255 
0.00311902 0.0591414 -0.0846898 -0.0308738 0.449683 0.892654 2 2 2 255 
0.00806839 0.231563 -0.083897 -0.0820215 0.451813 0.888334 2 2 2 255 
0.0197432 0.263045 -0.0823209 -0.203594 0.450286 0.869363 2 2 2 255 
0.0156542 0.234439 -0.0828867 -0.161455 0.452366 0.877096 2 2 2 255 
0.00069565 0.0555388 -0.0850147 -0.00394829 0.448789 0.893629 2 2 2 255 
0.0114435 0.252217 -0.0834322 -0.11776 0.452594 0.883907 2 2 2 255 
0.0032106 0.0243879 -0.0847049 -0.0308738 0.449683 0.892654 2 2 2 255 
0.00773665 0.117573 -0.0840304 -0.0789644 0.453006 0.888003 4 4 4 255 
0.0160365 0.186042 -0.0828738 -0.164706 0.453307 0.876005 2 2 2 255 
0.00331155 0.0834417 -0.0846451 -0.0336361 0.450724 0.89203 2 2 2 255 
0.0186451 0.24404 -0.0824818 -0.19091 0.451376 0.871673 2 2 2 255 
0.00267569 0.185987 -0.0846493 -0.0254166 0.450811 0.892258 2 2 2 255 
0.00347281 -0.0833492 -0.0847543 -0.0336361 0.450724 0.89203 101 101 101 255 
0.0143719 0.225136 -0.0830643 -0.148752 0.452031 0.879512 2 2 2 255 
0.00380015 -0.0508232 -0.0846854 -0.0391041 0.451719 0.891303 101 101 101 255 
0.00158084 -0.0825 -0.0850052 -0.0145959 0.449818 0.893001 101 101 101 255 
0.00459348 -0.0890397 -0.08461 -0.0474639 0.451585 0.890965 101 101 101 255 
0.00801662 -0.00871691 -0.0840921 -0.0820215 0.451813 0.888334 100 100 100 255 
0.00586728 0.24716 -0.0841774 -0.0587768 0.452445 0.889853 2 2 2 255 
0.0166033 0.265989 -0.0827358 -0.171032 0.451699 0.875623 2 2 2 255 
0.00174281 -0.0282073 -0.084941 -0.0172695 0.447678 0.894028 101 101 101 255 
0.0110784 0.141768 -0.0835673 -0.114672 0.45161 0.884816 2 2 2 255 
0.0069178 0.0669648 -0.0841789 -0.0702619 0.453258 0.888606 2 2 2 255 
0.0153854 0.243837 -0.0829151 -0.15862 0.452577 0.877504 2 2 2 255 
0.0102169 0.0105718 -0.0837846 -0.105612 0.45202 0.885734 2 2 2 255 
0.00827589 -0.00691169 -0.0840562 -0.0849919 0.452826 0.887539 100 100 100 255 
0.00530469 -0.00818207 -0.084452 -0.053196 0.451484 0.890692 100 100 100 255 
0.00140908 0.235904 -0.0847786 -0.0119142 0.44877 0.893568 2 2 2 255 
0.00670088 0.238281 -0.0840734 -0.0673543 0.452236 0.889351 2 2 2 255 
0.00426784 0.109088 -0.084498 -0.0419482 0.450605 0.891737 2 2 2 255 
0.0324567 0.0246684 -0.0779589 -0.339046 0.452587 0.82475 2 2 2 255 
0.037465 0.137161 -0.0758026 -0.390043 0.454248 0.800953 6 6 6 255 
0.0257347 0.0967487 -0.0807061 -0.265376 0.452521 0.851352 4 4 4 255 
0.0235138 -0.025769 -0.0817102 -0.243934 0.44999 0.859072 100 100 100 255 
0.025791 0.199241 -0.0806153 -0.265376 0.452521 0.851352 2 2 2 255 
0.0252238 0.180921 -0.0808631 -0.261153 0.450528 0.853712 2 2 2 255 
0.0281556 -0.0489697 -0.0797956 -0.292885 0.454049 0.841462 101 101 101 255 
0.0313415 0.210539 -0.0783001 -0.324784 0.453442 0.830003 2 2 2 255 
0.031675 -0.00264741 -0.0783018 -0.329296 0.455343 0.82718 2 2 2 255 
0.0246075 0.170515 -0.0811262 -0.25443 0.45249 0.854703 2 2 2 255 
0.0260828 -0.0356392 -0.0806486 -0.271773 0.452956 0.8491 101 101 101 255 
0.0357039 0.224606 -0.0764772 -0.371879 0.454873 0.809195 2 2 2 255 
0.0301225 0.155139 -0.0788434 -0.314227 0.454926 0.833249 7 7 7 255 
0.0391396 0.222657 -0.0750502 -0.405555 0.454028 0.793337 2 2 2 255 
0.0324531 0.0937032 -0.077915 -0.339046 0.452587 0.82475 4 4 4 255 
0.0309193 0.0445227 -0.0785851 -0.321973 0.453903 0.830846 2 2 2 255 
0.0324307 0.205583 -0.0778506 -0.33625 0.45307 0.825629 2 2 2 255 
0.0332429 0.261981 -0.0774757 -0.346403 0.453962 0.820928 2 2 2 255 
0.0329298 0.235285 -0.0776235 -0.342722 0.453278 0.822849 2 2 2 255 
0.0317179 0.118264 -0.0782044 -0.32844 0.454158 0.828171 2 2 2 255 
0.0249573 0.190057 -0.0809678 -0.258304 0.450885 0.85439 2 2 2 255 
0.0230843 -0.0913906 -0.0819319 -0.237601 0.449475 0.861115 101 101 101 255 
0.0323929 0.235674 -0.0778464 -0.33625 0.45307 0.825629 2 2 2 255 
0.031256 -0.00732789 -0.0784791 -0.325632 0.454626 0.829023 2 2 2 255 
0.0359322 0.141876 -0.0764367 -0.372418 0.452336 0.810368 6 6 6 255 
0.026215 -0.0611601 -0.0806105 -0.271773 0.452956 0.8491 101 101 101 255 
0.0266623 0.129454 -0.0802989 -0.275714 0.451308 0.848706 2 2 2 255 
0.0237082 0.00322358 -0.0816103 -0.24457 0.451164 0.858275 2 2 2 255 
0.0223578 -0.0278654 -0.0821922 -0.230358 0.450177 0.862714 100 100 100 255 
0.0328061 0.118006 -0.0777522 -0.342722 0.453278 0.822849 2 2 2 255 
0.0294826 0.114793 -0.0791361 -0.306967 0.453439 0.836758 2 2 2 255 
0.0240928 0.204249 -0.0813179 -0.248069 0.452003 0.856828 2 2 2 255 
0.0229373 0.207042 -0.0817966 -0.237277 0.451885 0.859942 2 2 2 255 
0.027966 0.0507206 -0.0798088 -0.289291 0.453274 0.843121 2 2 2 255 
0.0235741 0.0763137 -0.0816179 -0.243934 0.44999 0.859072 2 2 2 255 
0.0328904 0.21648 -0.0776523 -0.342722 0.453278 0.822849 2 2 2 255 
0.0296307 0.147318 -0.0790531 -0.306967 0.453439 0.836758 7 7 7 255 
0.0243888 0.0210892 -0.0813156 -0.251577 0.452839 0.855363 2 2 2 255 
0.0235404 0.0357302 -0.0816586 -0.243934 0.44999 0.859072 2 2 2 255 
0.0261155 0.125283 -0.0805291 -0.271773 0.452956 0.8491 2 2 2 255 
0.0224501 -0.156761 -0.0822388 -0.230958 0.451349 0.861941 101 101 101 255 
0.0232242 0.0444469 -0.0817843 -0.241081 0.450321 0.859704 2 2 2 255 
0.0246277 -0.0828388 -0.0812846 -0.25443 0.45249 0.854703 101 101 101 255 
0.0228366 0.000391768 -0.0819745 -0.234422 0.452207 0.860555 2 2 2 255 
0.0310512 0.063932 -0.0785174 -0.321973 0.453903 0.830846 2 2 2 255 
0.0276248 0.0537784 -0.0799486 -0.286452 0.453678 0.843873 2 2 2 255 
0.0243211 -0.0547325 -0.0813936 -0.250923 0.451661 0.856178 101 101 101 255 
0.0457592 0.172351 -0.0713348 -0.475224 0.452203 0.754768 2 2 2 255 
0.0462848 -0.0170381 -0.0710259 -0.482669 0.453017 0.749537 14 14 14 255 
0.049732 -0.0152267 -0.0683732 -0.52159 0.452044 0.723602 2 2 2 255 
0.04841 -0.0461213 -0.0694056 -0.50737 0.454485 0.732133 2 2 2 255 
0.0435804 0.12778 -0.0730334 -0.452159 0.452159 0.768833 2 2 2 255 
0.0524394 0.231568 -0.0661664 -0.548325 0.454993 0.701656 2 2 2 255 
0.049834 0.120364 -0.0682266 -0.522841 0.453129 0.722019 3 3 3 255 
0.0448857 -0.157851 -0.072173 -0.467767 0.451354 0.759916 101 101 101 255 
0.0526017 0.170934 -0.0660722 -0.55065 0.454161 0.700373 2 2 2 255 
0.0451586 0.175241 -0.0717954 -0.470326 0.45066 0.758748 2 2 2 255 
0.0499213 0.00964198 -0.0682151 -0.522841 0.453129 0.722019 2 2 2 255 
0.0476793 0.245569 -0.069821 -0.4963 0.453431 0.740329 2 2 2 255 
0.0448438 -0.124845 -0.0721885 -0.467767 0.451354 0.759916 101 101 101 255 
0.045871 -0.0827588 -0.0713772 -0.478948 0.452614 0.752163 101 101 101 255 
0.0567892 0.248122 -0.062812 -0.594085 0.453513 0.664371 2 2 2 255 
0.0527529 0.217328 -0.0659323 -0.551934 0.455221 0.698672 2 2 2 255 
0.05575 0.194682 -0.0636384 -0.583574 0.453147 0.673869 2 2 2 255 
0.0519465 0.0485903 -0.0666377 -0.544707 0.454756 0.704621 2 2 2 255 
0.0445545 -0.0922873 -0.0723948 -0.464035 0.450917 0.76246 101 101 101 255 
0.048847 0.0626194 -0.0690148 -0.51105 0.454818 0.729362 2 2 2 255 
0.0508161 0.177202 -0.0674425 -0.532542 0.452909 0.715033 2 2 2 255 
0.0491378 0.200351 -0.0687219 -0.514724 0.455141 0.726571 2 2 2 255 
0.0470964 0.038741 -0.0703736 -0.492601 0.453061 0.743021 2 2 2 255 
0.0480932 0.123428 -0.069564 -0.503685 0.454142 0.734885 2 2 2 255 
0.045152 -0.0300091 -0.0719038 -0.471497 0.451783 0.757352 14 14 14 255 
0.0459462 -0.137348 -0.0713469 -0.478948 0.452614 0.752163 101 101 101 255 
0.0434146 0.0610777 -0.0731944 -0.449556 0.452825 0.769967 2 2 2 255 
0.0432333 0.250385 -0.0732387 -0.448426 0.451687 0.771293 2 2 2 255 
0.044027 0.0625559 -0.0727226 -0.45589 0.452622 0.766353 2 2 2 255 
0.0507364 0.125853 -0.0675297 -0.530159 0.453709 0.716296 3 3 3 255 
0.0519447 0.0756987 -0.0666254 -0.54343 0.453689 0.706293 2 2 2 255 
0.0536055 0.230819 -0.0652698 -0.561415 0.454796 0.691357 2 2 2 255 
0.0491336 0.137199 -0.0687569 -0.514724 0.455141 0.726571 2 2 2 255 
0.0448181 0.117575 -0.0720864 -0.467767 0.451354 0.759916 2 2 2 255 
0.0456617 -0.0207289 -0.0715071 -0.475224 0.452203 0.754768 14 14 14 255 
0.0466743 -0.0972591 -0.0707666 -0.488898 0.452683 0.745692 101 101 101 255 
0.0529806 0.145909 -0.0657932 -0.554247 0.454383 0.697386 2 2 2 255 
0.0455416 -0.0180396 -0.071598 -0.475224 0.452203 0.754768 14 14 14 255 
0.0448262 0.0106473 -0.072134 -0.467767 0.451354 0.759916 2 2 2 255 
0.0491953 0.145054 -0.0687054 -0.514724 0.455141 0.726571 2 2 2 255 
0.0481292 -0.0231318 -0.0696101 -0.503685 0.454142 0.734885 14 14 14 255 
0.0502906 0.0588877 -0.0679063 -0.526503 0.453424 0.719167 2 2 2 255 
0.0498367 -0.0210172 -0.0682957 -0.522841 0.453129 0.722019 2 2 2 255 
0.046424 0.0440117 -0.0708882 -0.48519 0.452296 0.748344 2 2 2 255 
0.0506642 0.0899293 -0.0676032 -0.530159 0.453709 0.716296 2 2 2 255 
0.046541 -0.0133776 -0.070827 -0.486386 0.453411 0.746891 2 2 2 255 
-0.0242114 0.0732592 -0.0811442 0.257631 0.44971 0.855212 29 29 29 255 
-0.0354225 -0.208029 -0.0768045 0.375166 0.451796 0.809401 2 2 2 255 
-0.0308095 -0.0861039 -0.0785838 0.324784 0.453442 0.830003 2 2 2 255 
-0.0244754 0.100169 -0.0810077 0.261153 0.450528 0.853712 100 100 100 255 
-0.0280866 -0.127038 -0.0797497 0.296129 0.45117 0.841875 2 2 2 255 
-0.0274827 -0.0831674 -0.0799541 0.292885 0.454049 0.841462 2 2 2 255 
-0.0283468 -0.0984301 -0.0796131 0.299735 0.451931 0.840189 2 2 2 255 
-0.032101 -0.0206243 -0.0779838 0.339046 0.452587 0.82475 2 2 2 255 
-0.0324 -0.174374 -0.0780177 0.342722 0.453278 0.822849 2 2 2 255 
-0.0245811 -0.0413757 -0.081109 0.261153 0.450528 0.853712 2 2 2 255 
-0.0259103 0.0636968 -0.0804528 0.274995 0.450131 0.849565 29 29 29 255 
-0.0272419 -0.0685044 -0.0800385 0.289291 0.453274 0.843121 2 2 2 255 
-0.0234404 -0.201027 -0.0817432 0.247424 0.450827 0.857634 2 2 2 255 
-0.0250881 -0.2232 -0.0810859 0.264685 0.451341 0.852193 2 2 2 255 
-0.0275319 0.0457383 -0.0798017 0.292885 0.454049 0.841462 31 31 31 255 
-0.0311471 -0.0564505 -0.0784141 0.32844 0.454158 0.828171 2 2 2 255 
-0.0303301 -0.0522279 -0.0787471 0.321134 0.452721 0.831815 2 2 2 255 
-0.0229662 -0.197409 -0.0819352 0.240454 0.44915 0.860492 2 2 2 255 
-0.0223241 0.0682448 -0.0819284 0.237277 0.451885 0.859942 29 29 29 255 
-0.0344956 -0.211985 -0.0771913 0.364464 0.45359 0.813279 2 2 2 255 
-0.0259015 -0.141191 -0.0806662 0.27533 0.453756 0.847525 2 2 2 255 
-0.0223426 -0.227504 -0.0822234 0.237277 0.451885 0.859942 2 2 2 255 
-0.0318458 -0.011766 -0.07808 0.339046 0.452587 0.82475 2 2 2 255 
-0.0263371 -0.109231 -0.0804535 0.278557 0.450923 0.847982 2 2 2 255 
-0.0268939 -0.223498 -0.0803407 0.285705 0.452495 0.844761 2 2 2 255 
-0.032009 -0.0448438 -0.0780466 0.339046 0.452587 0.82475 2 2 2 255 
-0.022654 0.228708 -0.081628 0.240454 0.44915 0.860492 101 101 101 255 
-0.0340634 -0.0814313 -0.0772361 0.360762 0.452939 0.81529 2 2 2 255 
-0.0273275 -0.0517409 -0.079986 0.289291 0.453274 0.843121 2 2 2 255 
-0.0338155 -0.20564 -0.0774654 0.357064 0.452281 0.81728 2 2 2 255 
-0.0252168 -0.189979 -0.0809987 0.264685 0.451341 0.852193 2 2 2 255 
-0.0217819 0.129596 -0.0820894 0.230358 0.450177 0.862714 101 101 101 255 
-0.0294109 -0.10065 -0.079176 0.310594 0.454185 0.835014 2 2 2 255 
-0.0295094 -0.0285233 -0.0790614 0.314227 0.454926 0.833249 2 2 2 255 
-0.0327475 -0.0095328 -0.0777057 0.346403 0.453962 0.820928 2 2 2 255 
-0.025126 -0.0637849 -0.080907 0.264685 0.451341 0.852193 2 2 2 255 
-0.0260116 -0.11592 -0.0805948 0.274995 0.450131 0.849565 2 2 2 255 
-0.0220621 -0.180479 -0.0822911 0.233813 0.451033 0.861337 2 2 2 255 
-0.0382759 -0.229107 -0.0756484 0.404517 0.452866 0.79453 2 2 2 255 
-0.0240681 -0.208051 -0.0814912 0.25443 0.45249 0.854703 2 2 2 255 
-0.0264446 -0.0520581 -0.0803507 0.278557 0.450923 0.847982 2 2 2 255 
-0.0255941 -0.11424 -0.0807654 0.271773 0.452956 0.8491 2 2 2 255 
-0.0354966 -0.120755 -0.0766847 0.375166 0.451796 0.809401 2 2 2 255 
-0.0306491 -0.184766 -0.0787511 0.324784 0.453442 0.830003 2 2 2 255 
-0.0273282 0.0426674 -0.0798891 0.289291 0.453274 0.843121 31 31 31 255 
-0.0305018 -0.0850777 -0.0787098 0.324784 0.453442 0.830003 2 2 2 255 
-0.0234905 -0.165343 -0.081686 0.247424 0.450827 0.857634 2 2 2 255 
0.0565312 0.0258549 -0.0631224 -0.592765 0.452505 0.666235 2 2 2 255 
0.0556355 -0.141999 -0.0638959 -0.583574 0.453147 0.673869 101 101 101 255 
0.0586216 0.0632287 -0.0614955 -0.613459 0.45299 0.64689 2 2 2 255 
0.0588514 0.0998131 -0.0613003 -0.614387 0.450327 0.647869 2 2 2 255 
0.0584037 0.0295719 -0.06168 -0.610041 0.452935 0.650154 2 2 2 255 
0.0573345 -0.207203 -0.0626216 -0.601035 0.453706 0.657957 101 101 101 255 
0.0578126 -0.109667 -0.0622048 -0.606611 0.452869 0.653401 101 101 101 255 
0.0598881 0.165826 -0.0604696 -0.624579 0.450433 0.637974 2 2 2 255 
0.0594417 0.17199 -0.0608099 -0.621195 0.450408 0.641287 2 2 2 255 
0.0456182 -0.186826 -0.071624 -0.475224 0.452203 0.754768 101 101 101 255 
0.0483025 -0.190436 -0.0695609 -0.50737 0.454485 0.732133 101 101 101 255 
0.0541379 0.07182 -0.0649402 -0.569408 0.45252 0.686295 2 2 2 255 
0.0591909 0.182506 -0.0609975 -0.617798 0.450373 0.644586 2 2 2 255 
0.0507081 -0.169617 -0.0677 -0.532542 0.452909 0.715033 101 101 101 255 
0.0596194 0.076166 -0.0607215 -0.623245 0.449472 0.639954 2 2 2 255 
0.0571979 0.0668561 -0.0625887 -0.599712 0.452707 0.65985 2 2 2 255 
0.0602229 0.0912437 -0.0602496 -0.627949 0.450449 0.634647 2 2 2 255 
0.0567634 0.0847954 -0.062914 -0.594085 0.453513 0.664371 2 2 2 255 
0.0591777 -0.187636 -0.061194 -0.621195 0.450408 0.641287 101 101 101 255 
0.0593973 -0.173119 -0.0610177 -0.621195 0.450408 0.641287 101 101 101 255 
0.0563916 0.132291 -0.0631762 -0.590593 0.453401 0.667554 2 2 2 255 
0.0531405 -0.00931081 -0.0657483 -0.557835 0.454594 0.69438 2 2 2 255 
0.0440194 -0.20189 -0.0728614 -0.45962 0.453077 0.763852 101 101 101 255 
0.0507722 -0.0854015 -0.0676084 -0.532542 0.452909 0.715033 101 101 101 255 
0.0519685 -0.139388 -0.0667152 -0.544707 0.454756 0.704621 101 101 101 255 
0.0576088 0.00140382 -0.0623056 -0.603167 0.452793 0.656634 2 2 2 255 
0.0574608 -0.10775 -0.0624746 -0.603167 0.452793 0.656634 101 101 101 255 
0.0585316 -0.171364 -0.0616828 -0.613459 0.45299 0.64689 101 101 101 255 
0.0524 -0.176118 -0.0664017 -0.55065 0.454161 0.700373 101 101 101 255 
0.0546593 -0.0418662 -0.0645963 -0.572964 0.452692 0.683214 2 2 2 255 
0.056696 0.0378508 -0.0629895 -0.594085 0.453513 0.664371 2 2 2 255 
0.0524368 -0.0469608 -0.0663086 -0.55065 0.454161 0.700373 2 2 2 255 
0.0559443 -0.125368 -0.0636498 -0.587089 0.453279 0.67072 101 101 101 255 
0.0493412 -0.116631 -0.0687248 -0.519173 0.452825 0.724851 101 101 101 255 
0.0533368 -0.15581 -0.0656709 -0.559127 0.455647 0.69265 101 101 101 255 
0.0515964 -0.213058 -0.0670387 -0.541082 0.454509 0.707568 101 101 101 255 
0.0603735 -0.158265 -0.0602593 -0.631305 0.450454 0.631305 101 101 101 255 
0.0523496 -0.0248454 -0.0663646 -0.548325 0.454993 0.701656 2 2 2 255 
0.0497146 -0.189036 -0.0684742 -0.522841 0.453129 0.722019 101 101 101 255 
0.049339 -0.156917 -0.0687467 -0.519173 0.452825 0.724851 101 101 101 255 
0.0527175 -0.0624114 -0.0661003 -0.554247 0.454383 0.697386 101 101 101 255 
0.051817 -0.162245 -0.0668432 -0.54343 0.453689 0.706293 101 101 101 255 
0.0602899 0.0210107 -0.0602333 -0.629971 0.449502 0.633313 2 2 2 255 
0.0547552 0.0833246 -0.0644596 -0.572964 0.452692 0.683214 2 2 2 255 
0.0602968 0.0418134 -0.0602176 -0.629971 0.449502 0.633313 2 2 2 255 
0.051769 -0.13936 -0.0668687 -0.54343 0.453689 0.706293 101 101 101 255 
-0.0246824 0.219878 -0.0807998 0.261153 0.450528 0.853712 101 101 101 255 
-0.0393437 0.0522083 -0.0749197 0.415267 0.450815 0.790138 10 10 10 255 
-0.0408957 0.214682 -0.0741129 0.430211 0.452939 0.780874 101 101 101 255 
-0.038841 0.131025 -0.0750466 0.411984 0.45399 0.79004 101 101 101 255 
-0.0411856 -0.0741918 -0.0742889 0.433486 0.449721 0.780923 2 2 2 255 
-0.02948 0.158754 -0.078882 0.313853 0.451261 0.83538 101 101 101 255 
-0.026015 0.17732 -0.0802933 0.274995 0.450131 0.849565 101 101 101 255 
-0.0398739 0.224023 -0.0745251 0.422738 0.451893 0.785548 101 101 101 255 
-0.0353267 0.0467428 -0.0765834 0.375166 0.451796 0.809401 10 10 10 255 
-0.0415501 0.266376 -0.0737898 0.437222 0.450224 0.778547 101 101 101 255 
-0.0377673 0.0867534 -0.0755351 0.400786 0.452293 0.796744 5 5 5 255 
-0.0242325 0.215864 -0.0809895 0.257631 0.44971 0.855212 101 101 101 255 
-0.0362865 -0.00792606 -0.0762432 0.382599 0.453036 0.805219 2 2 2 255 
-0.0369503 0.0389285 -0.0759212 0.390043 0.454248 0.800953 2 2 2 255 
-0.0409235 0.21556 -0.0741005 0.429749 0.44921 0.783279 101 101 101 255 
-0.0404489 0.0807899 -0.0744344 0.426475 0.45242 0.783221 5 5 5 255 
-0.0279321 0.116061 -0.0795646 0.296129 0.45117 0.841875 101 101 101 255 
-0.0404664 0.0243792 -0.0744849 0.426475 0.45242 0.783221 2 2 2 255 
-0.0410489 0.013274 -0.0742557 0.433486 0.449721 0.780923 2 2 2 255 
-0.0317205 0.189986 -0.0779254 0.335376 0.451891 0.82663 101 101 101 255 
-0.0418288 0.123249 -0.0738212 0.440957 0.45072 0.77615 100 100 100 255 
-0.0377861 0.128939 -0.0754842 0.400786 0.452293 0.796744 101 101 101 255 
-0.0387524 0.0415892 -0.0751747 0.40825 0.453432 0.792295 10 10 10 255 
-0.0240078 0.214013 -0.0810842 0.25443 0.45249 0.854703 101 101 101 255 
-0.0326828 0.241153 -0.0774757 0.346403 0.453962 0.820928 101 101 101 255 
-0.0404447 -0.153105 -0.0746754 0.426475 0.45242 0.783221 2 2 2 255 
-0.0373236 0.227475 -0.0755742 0.397057 0.451713 0.798937 101 101 101 255 
-0.0315864 0.0676498 -0.0781059 0.335376 0.451891 0.82663 29 29 29 255 
-0.0311335 0.110858 -0.0782486 0.332101 0.454869 0.826319 101 101 101 255 
-0.0407923 -0.147337 -0.0745261 0.430211 0.452939 0.780874 2 2 2 255 
-0.0256296 0.194111 -0.0804351 0.271773 0.452956 0.8491 101 101 101 255 
-0.0367961 -0.0122241 -0.0760373 0.390043 0.454248 0.800953 2 2 2 255 
-0.0343831 -0.0285722 -0.07705 0.364464 0.45359 0.813279 2 2 2 255 
-0.0415453 -0.178074 -0.0742467 0.437222 0.450224 0.778547 2 2 2 255 
-0.026259 0.17366 -0.0801962 0.278557 0.450923 0.847982 101 101 101 255 
-0.0285207 0.173933 -0.0792625 0.303347 0.452688 0.838483 101 101 101 255 
-0.0281505 0.246129 -0.0793414 0.299735 0.451931 0.840189 101 101 101 255 
-0.0398007 -0.00759251 -0.0747924 0.419002 0.451358 0.787854 2 2 2 255 
-0.0396612 -0.0941816 -0.0749386 0.419002 0.451358 0.787854 2 2 2 255 
-0.0271097 0.183877 -0.0798347 0.289291 0.453274 0.843121 101 101 101 255 
-0.0350608 0.0949613 -0.0766438 0.371879 0.454873 0.809195 23 23 23 255 
-0.0295823 0.249481 -0.078747 0.313853 0.451261 0.83538 101 101 101 255 
-0.0338467 0.262184 -0.0769737 0.360762 0.452939 0.81529 101 101 101 255 
-0.0304554 0.153374 -0.0784849 0.324784 0.453442 0.830003 101 101 101 255 
-0.0291199 0.212621 -0.0789755 0.310594 0.454185 0.835014 101 101 101 255 
-0.030921 0.222999 -0.0782215 0.32844 0.454158 0.828171 101 101 101 255 
-0.0333251 0.250237 -0.0772014 0.353371 0.451618 0.81925 101 101 101 255 
0.0658283 -0.0811029 -0.0531328 -0.691357 0.454796 0.561415 101 101 101 255 
0.0679271 -0.0929523 -0.0503931 -0.715033 0.452909 0.532542 101 101 101 255 
0.0652022 0.071652 -0.0539104 -0.686295 0.45252 0.569408 2 2 2 255 
0.0675558 -0.225133 -0.0509136 -0.712138 0.453179 0.536179 101 101 101 255 
0.0684993 -0.0958707 -0.0496462 -0.722019 0.453129 0.522841 101 101 101 255 
0.0657772 0.00806424 -0.0531758 -0.691357 0.454796 0.561415 2 2 2 255 
0.0675151 -0.0968488 -0.0509327 -0.710496 0.454252 0.537448 101 101 101 255 
0.060594 0.179041 -0.059904 -0.631305 0.450454 0.631305 2 2 2 255 
0.0607755 0.0953505 -0.0596893 -0.634647 0.450449 0.627949 2 2 2 255 
0.0703605 -0.16197 -0.0472314 -0.740329 0.453431 0.4963 101 101 101 255 
0.0665306 -0.119645 -0.0522253 -0.700373 0.454161 0.55065 101 101 101 255 
0.0633771 0.106661 -0.0562862 -0.664371 0.453513 0.594085 4 4 4 255 
0.0614647 -0.115714 -0.0588446 -0.644586 0.450373 0.617798 101 101 101 255 
0.0642706 0.0771289 -0.0551264 -0.673869 0.453147 0.583574 2 2 2 255 
0.0675922 -0.206948 -0.0508612 -0.712138 0.453179 0.536179 101 101 101 255 
0.0628606 -0.17974 -0.0570374 -0.65985 0.452707 0.599712 101 101 101 255 
0.0646029 0.0547094 -0.0546981 -0.678806 0.451981 0.578736 2 2 2 255 
0.0631941 -0.150399 -0.0565939 -0.66305 0.452611 0.596244 101 101 101 255 
0.0690767 -0.148037 -0.0489053 -0.726571 0.455141 0.514724 101 101 101 255 
0.0645348 -0.0872855 -0.054825 -0.678806 0.451981 0.578736 101 101 101 255 
0.0658037 0.0280512 -0.0531359 -0.691357 0.454796 0.561415 2 2 2 255 
0.0611071 -0.182283 -0.0593298 -0.639954 0.449472 0.623245 101 101 101 255 
0.0608354 0.246117 -0.0595708 -0.634647 0.450449 0.627949 2 2 2 255 
0.0626597 -0.121759 -0.0572845 -0.656634 0.452793 0.603167 101 101 101 255 
0.0685763 -0.155886 -0.0495614 -0.722019 0.453129 0.522841 101 101 101 255 
0.0658416 -0.029127 -0.0531017 -0.691357 0.454796 0.561415 2 2 2 255 
0.0675069 -0.0992906 -0.050944 -0.710496 0.454252 0.537448 101 101 101 255 
0.0618461 0.192517 -0.0582642 -0.647869 0.450327 0.614387 2 2 2 255 
0.0659803 0.0242545 -0.0529061 -0.69438 0.454594 0.557835 2 2 2 255 
0.065631 -0.105252 -0.053397 -0.691357 0.454796 0.561415 101 101 101 255 
0.0660665 0.00589599 -0.0527984 -0.69438 0.454594 0.557835 2 2 2 255 
